#Created by C++ matrix writer.
-1624.32 1269.12 -860.283 
-502.801 1168.65 -900.339 
-470.495 1189.97 -926.458 
-1177 1267.48 -743.269 
-1146.43 1288.12 -768.468 
-1389.24 1233.96 -760.99 
-1358.22 1254.85 -785.17 
1721.14 1220.6 -1497.18 
1764.4 1247.94 -1533.76 
-1957.75 1288.26 -876.418 
-1922.66 1311.79 -900.955 
-336.166 1116.59 -972.919 
-302.887 1138.35 -998.99 
965.284 1280.39 -534.85 
987.761 1295.75 -564.193 
-709.755 1188.88 -811.557 
-679.022 1209.36 -836.937 
-833.342 1272.09 -748.088 
-803.155 1292.43 -774.254 
1546.05 1030.55 -1779.99 
1594.51 1060.65 -1814.57 
-2079.49 1451.4 -586.029 
-2049.54 1472.22 -611.293 
-2961.11 1248.16 -541.506 
-2932.64 1267.96 -560.578 
-2108.71 1166.82 -911.4 
-2073.65 1190.15 -933.581 
-2835.58 1155.47 -712.946 
-2804.14 1176.82 -731.787 
-2374.57 1106.25 -893.857 
-2340.05 1129.22 -914.157 
861.424 856.384 -1760.91 
908.935 885.781 -1790.49 
-2417.93 1562.6 -288.855 
-2393.41 1580.51 -313.315 
-32.4439 1066.72 -1172.85 
4.58997 1090.53 -1200.11 
104.353 1178.48 -1092.71 
140.3 1201.82 -1121.8 
297.819 1042.41 -1413.51 
339.75 1068.99 -1442.76 
-2610.74 1025.23 -884.424 
-2576.81 1047.76 -902.597 
208.172 1086.43 -1310.52 
248.228 1112 -1339.66 
295.881 1334.32 -790.122 
325.848 1354.36 -820.504 
-1812.58 1201.13 -891.425 
-1778.15 1224.09 -914.832 
391.409 1234.26 -1028.19 
425.899 1256.77 -1058.59 
2077.17 1524.92 -602.785 
2101.7 1541.66 -639.8 
-2726.1 1058.81 -818.161 
-2693.23 1080.81 -836.216 
1302.49 809.631 -1953.21 
1353.39 840.836 -1984.32 
1491.56 832.471 -1970.52 
1542.78 863.857 -2002.63 
1108.72 1008.41 -1733.12 
1156.56 1038.22 -1765.9 
1301.11 1143.19 -1608.39 
1346.94 1172 -1643.26 
1404.66 1049.85 -1759.04 
1453.02 1079.96 -1793.47 
1761.69 850.184 -1817.36 
1809.07 879.267 -1849.43 
-1282.09 1291.23 -677.655 
-1252.68 1311.26 -702.587 
785.04 1358.23 -842.379 
815.682 1378.6 -874.76 
-766.554 1383.49 -576.005 
-739.499 1402.17 -603.215 
1000.93 797.697 -1875.3 
1050.38 828.093 -1904.92 
439.333 1367.04 -714.716 
467.606 1386.11 -745.545 
108.062 1037.69 -1269.67 
146.881 1062.47 -1297.39 
-2872.5 1025.72 -724.17 
-2841.9 1046.36 -740.628 
-2220.99 1632.21 -290.335 
-2196.11 1650.4 -316.564 
-2922.56 1123.14 -579.95 
-2894.38 1142.53 -597.094 
133.105 957.667 -1344.61 
172.921 982.883 -1371.43 
231.657 931.035 -1451.94 
273.591 957.429 -1479.25 
-2754.17 925.261 -837.449 
-2722 946.607 -853.127 
-2402.41 1527 -448.67 
-2374.49 1546.84 -473.591 
-2668.79 1501.21 -414.061 
-2641.5 1520.7 -437.62 
-2253.81 1582.93 -401.441 
-2226.73 1602.35 -427.435 
-496.572 1071.87 -932.373 
-464.393 1092.94 -956.958 
-2760.56 1357.9 -535.981 
-2731.55 1378.17 -557.515 
-1014.06 1158.18 -764.281 
-984.231 1178.15 -788.029 
1118.02 695.114 -2041.54 
1170.26 726.941 -2070.69 
-1380.86 1329.85 -574.97 
-1353.35 1348.85 -599.672 
-222.104 1007.8 -1085.82 
-187.338 1030.21 -1110.94 
1515.06 597.734 -2131.92 
1567.91 629.654 -2160.89 
-391.022 1273.85 -715.011 
-362.283 1293.23 -742.084 
-2345.85 1742.2 -62.5638 
-2325.12 1758.17 -88.9624 
1801.5 1055.4 -1674.09 
1847.3 1083.92 -1709.05 
866.674 758.183 -1850.42 
915.389 788.111 -1878.81 
1408.71 1336.25 -1049.16 
1443.02 1358.59 -1084.07 
-2523.28 1526.78 -424.758 
-2495.73 1546.44 -449.216 
362.724 907.538 -1499.61 
405.359 934.271 -1527.13 
-3107.72 1570.94 -97.1057 
-3086.53 1587.06 -118.723 
1516.45 1261.5 -1318.19 
1556.22 1286.89 -1353.81 
-1515.67 1397.39 -522.533 
-1488.57 1416.3 -547.782 
-2753.89 1261.43 -579.56 
-2724.74 1281.6 -599.643 
-2375.86 1663.72 -212.703 
-2352.27 1681.24 -238.601 
-2777.47 1512.71 -324.341 
-2752 1531.17 -347.239 
-1701.74 1419.2 -523.661 
-1674.13 1438.5 -548.855 
-2144.92 1382.61 -683.131 
-2113.21 1404.36 -707.629 
1585.61 835.253 -1972.75 
1636.76 866.581 -2005.16 
-2015.54 1018.58 -967.547 
-1980.65 1041.52 -987.632 
-308.187 1006.03 -1033.73 
-274.521 1027.81 -1058.26 
400.184 1339.12 -813.172 
430.57 1359.39 -844.055 
1155.4 1150.38 -1588.33 
1201.05 1179.14 -1622.84 
558.777 850.241 -1648.11 
604.067 878.389 -1676.07 
1167.64 1345.48 -746.864 
1195.34 1363.99 -779.319 
1445.1 755.563 -2053.76 
1497.65 787.607 -2084.91 
-2849.1 898.697 -821.215 
-2817.4 919.74 -836.065 
388.033 735.912 -1620.95 
431.93 763.071 -1646.22 
-122.414 976.924 -1173.05 
-86.0395 1000.21 -1198.45 
-1201.08 1097.71 -840.724 
-1169.71 1118.52 -863.419 
-2447.21 968.023 -943.545 
-2412.65 990.779 -961.476 
-1797.44 1070.94 -933.442 
-1763.21 1093.53 -954.793 
-2223.61 1316.78 -797.895 
-2189.69 1339.74 -821.766 
-833.234 1153.56 -778.048 
-803.408 1173.47 -802.252 
-2998.9 1113.3 -515.499 
-2972.2 1131.82 -531.842 
698.456 738.938 -1760.4 
745.157 767.683 -1787.43 
1307.69 748.221 -2060.52 
1360.55 780.466 -2091.24 
-3032.88 1223.59 -432.414 
-3007.07 1241.78 -450.128 
905.624 660.979 -1941.62 
955.55 691.431 -1968.96 
37.0651 950.933 -1320.82 
76.4146 975.884 -1347.13 
1245.55 611.702 -2109.34 
1298.42 643.723 -2137.74 
-894.804 1057.07 -857.638 
-863.885 1077.47 -880.464 
1406.78 1298.7 -1179.33 
1443.81 1322.58 -1214.42 
-1488.89 1132.32 -863.365 
-1456.24 1154.02 -886.131 
-1957.69 1348.5 -709.281 
-1925.98 1370.16 -733.796 
-2947.76 1023.94 -639.817 
-2919.03 1043.48 -655.49 
1024.3 622.805 -2018.9 
1075.5 653.915 -2046.36 
-997.574 1264.93 -711.994 
-968.04 1284.91 -737.381 
-1599.69 1067.59 -919.687 
-1566.11 1089.74 -941.375 
-2991.65 847.218 -623.652 
-2964.81 865.333 -635.884 
-2631.58 1390.5 -557.31 
-2601.99 1411.14 -579.902 
683.404 627.833 -1819.09 
730.506 656.616 -1844.45 
-52.0489 887.465 -1297.98 
-13.6627 911.754 -1322.75 
-489.103 984.689 -1003.68 
-456.048 1006.11 -1027.17 
-2510.9 617.241 -1016.51 
-2477.67 638.586 -1028.37 
1122 536.733 -2123.14 
1174.72 568.555 -2149.96 
-2707.33 707.076 -919.573 
-2675.26 727.95 -931.938 
-236.927 908.951 -1153.9 
-201.43 931.619 -1177.65 
-2817.81 760.659 -871.527 
-2786.22 781.379 -884.273 
-3193.51 1423.8 -124.663 
-3172.87 1439.36 -143.568 
161.222 871.687 -1450.98 
202.713 897.728 -1477.02 
-2008.06 858.518 -1024.42 
-1973.28 881.101 -1041.99 
-488.07 1220.84 -793.17 
-457.826 1241.03 -819.56 
478.952 635.957 -1725.82 
524.265 663.748 -1750.19 
-759.233 998.144 -922.829 
-727.528 1018.86 -945.353 
-2937.92 1405.87 -247.079 
-2914.96 1422.69 -267.111 
659 454.169 -1842.38 
705.13 482.067 -1864.65 
-120.234 852.078 -1224.19 
-83.7849 875.176 -1247.66 
-2963.82 775.696 -721.633 
-2935.37 794.624 -733.286 
199.722 748.362 -1518.49 
241.627 774.413 -1542.82 
909.824 460.969 -2023.1 
959.842 491.119 -2047.34 
-1895.45 888.45 -1042.81 
-1860.15 911.37 -1061.32 
71.3441 810.95 -1404.34 
111.34 836.019 -1428.73 
322.199 639.085 -1592.16 
364.658 665.235 -1615.31 
-2063.17 1245.14 -868.913 
-2028.48 1268.39 -892.352 
-1376 981.837 -897.112 
-1344.08 1002.8 -917.637 
-2455.89 449.538 -1021.98 
-2424.13 469.704 -1030.95 
-2312.51 627.122 -1048.42 
-2278.76 648.747 -1061.17 
835.654 634.454 -1911.22 
884.73 664.378 -1937.68 
1168.39 877.555 -1901.2 
1218.89 908.682 -1932.87 
-1627.35 977.68 -972.882 
-1593.3 999.957 -993.218 
-2576.8 329.897 780.61 
-2588.08 324.463 786.214 
-1595.5 1470.76 -458.055 
-1569.12 1489.4 -484.013 
-2588.47 794.765 -963.089 
-2554.79 816.725 -977.641 
-387.411 897.103 -1094.22 
-353.182 919.038 -1116.97 
-2933.68 680.115 -779.147 
-2904.79 699.122 -789.517 
-41.8689 754.044 -1355.61 
-3.34601 778.169 -1378.36 
528.156 422.299 -1748.43 
572.008 448.826 -1769.18 
1113.04 227.527 -2098.6 
1162.42 256.824 -2119.59 
-2826.13 575.546 -909.738 
-2795.29 595.489 -919.342 
831.314 981.727 -1659.06 
877.616 1010.64 -1690.16 
-534.648 869.072 -1022.31 
-502.123 889.986 -1043.7 
709.849 291.03 -1841.39 
754.416 317.697 -1860.81 
-2643.4 552.26 -967.587 
-2611.7 572.622 -977.608 
-1717.76 872.785 -1024.18 
-1683.31 895.129 -1042.72 
866.004 272.157 -1951.73 
912.735 300.031 -1971.94 
-2707.35 826.596 -897.885 
-2674.73 848.021 -912.284 
-2203.46 580.358 -1059.86 
-2170.04 601.682 -1072.1 
386.996 591.331 -1684.11 
431.076 618.336 -1707.16 
-2476.24 792.15 -980.674 
-2442.35 814.204 -995.574 
1459.91 426.567 -2237.29 
1513.78 458.79 -2263.71 
305.87 758.496 -1558.73 
348.641 785.052 -1583.79 
1612.36 305.116 -2194.06 
1663.9 335.702 -2218.34 
1122.67 759.118 -1993.2 
1174.34 790.727 -2023.2 
1050.21 425.647 -2109.36 
1101.72 456.574 -2133.89 
-1951.36 1136.52 -914.968 
-1916.73 1159.51 -937.01 
-1952.43 679.137 -1036.66 
-1919.05 700.55 -1051.17 
1258.5 310.573 -2189.3 
1310.53 341.544 -2212.77 
506.639 984.01 -1531.41 
550.479 1011.56 -1560.9 
825.724 432.338 -1951.86 
873.956 461.399 -1974.88 
-2393.96 109.5 594.343 
-2403.14 104.86 602.27 
1100.83 26.2953 -1965.71 
1145.32 52.3422 -1982.11 
-2476.41 252 -962.072 
-2447.78 269.959 -966.99 
-173.317 759.111 -1233.32 
-137.404 781.737 -1255.02 
265.214 505.928 -1569.53 
306.041 530.886 -1589.96 
-1584.49 807.657 -998.812 
-1551.42 829.033 -1016.33 
-3102.53 1339.4 -196.357 
-3081.11 1355.24 -214.428 
-3033.16 1318.45 -336.839 
-3008.74 1336 -355.642 
-3254.66 1423.56 21.3352 
-3237.33 1437.17 3.56587 
2251.08 548.621 -1032.6 
2276.64 564.155 -1055.12 
1818.91 1219.06 -1567.19 
1863.65 1247.25 -1604.46 
125.047 698.135 -1462.41 
165.307 723.143 -1485.27 
638.241 283.701 -1779.54 
681.406 309.545 -1798.23 
-2256.11 1517.93 -505.895 
-2227.16 1538.33 -531.397 
-653.919 898.335 -968.208 
-622.211 918.849 -989.477 
1458.09 163.034 -2243.67 
1509.76 193.476 -2265.32 
-2280.8 1385.9 -659.518 
-2249.41 1407.51 -683.581 
987.644 323.894 -2033.54 
1036.57 353.125 -2055.55 
989.544 58.2573 -1928.56 
1033.62 84.1481 -1945.02 
-37.5339 982.547 -1237.4 
0.263283 1006.66 -1263.54 
-2623.18 301.707 -935.331 
-2594.51 319.821 -940.613 
830.914 110.616 -1792.15 
872.528 135.18 -1808.25 
-2870.45 423.687 -856.218 
-2842.15 441.864 -862.582 
-2198.52 306.427 -997.582 
-2169.01 324.94 -1004.42 
-2353.09 380.698 -1022.67 
-2322.09 400.265 -1030.65 
-285.699 791.069 -1148.64 
-251.306 812.884 -1170.07 
-1839.11 627.059 -1033.63 
-1806.45 647.928 -1047.45 
-2735.77 394.806 -910.575 
-2706.67 413.371 -917.111 
410.665 437.188 -1661.83 
452.807 462.763 -1681.97 
86.9821 553.913 -1419.92 
125.016 577.353 -1439.77 
-2916.22 569.602 -802.191 
-2887.81 588.121 -810.742 
1411.05 118.736 -2175.07 
1460.79 147.97 -2195.33 
-2921.99 921.415 -707.205 
-2892.64 941.13 -721.524 
595.151 630.857 -1799.16 
641.951 659.489 -1824.22 
1527.15 942.055 -1903.72 
1577.73 973.257 -1937.47 
1983.37 174.663 -1625.02 
2019.85 196.032 -1644.03 
-116.411 1134.7 -1026.51 
-82.0606 1157.08 -1053.82 
-2220.92 464.74 -1048.05 
-2188.77 485.1 -1058.06 
175.915 592.884 -1516.51 
216.418 617.831 -1537.94 
-2318.6 746.089 -1017.36 
-2284.5 768.138 -1032.06 
-998.917 1083.81 -834.743 
-968.132 1104.2 -857.645 
1307.27 -21.1647 -2058.52 
1353.19 5.58527 -2075.18 
-56.7129 625.012 -1348.72 
-19.4838 648.142 -1369.04 
-191.017 638.828 -1210.21 
-156.694 660.3 -1229.52 
757.751 114.421 -1743.22 
798.365 138.421 -1758.89 
-2362.24 32.5522 -869.81 
-2337.93 47.5449 -870.388 
1247.44 175.6 -2139.58 
1297.12 204.938 -2160.23 
-1650.58 718.209 -1016.97 
-1617.78 739.277 -1032.81 
1296.72 487.152 -2181.59 
1350.08 519.227 -2208.33 
-2586.59 928.018 -872.337 
-2553.84 949.67 -888.716 
-1311.58 895.932 -930.105 
-1279.75 916.668 -949.444 
-2042.03 441.32 -1023.99 
-2010.93 460.973 -1033.86 
1663.54 1093.59 -1719.45 
1710.96 1123.16 -1755.06 
-2367.46 502.837 -1029.76 
-2335.18 523.387 -1039.98 
1853.72 1464.58 -1074.98 
1889.09 1487.67 -1113.51 
-2799.28 723.973 -36.9897 
-2787.57 732.888 -43.5132 
1170.46 -230.452 -1766.04 
1207.88 -209.067 -1776.58 
-3046.07 612.106 -674.796 
-3020.05 629.32 -682.946 
-2955.34 469.032 -793.357 
-2927.98 486.761 -799.917 
455.384 270.571 -1598.55 
494.485 294.035 -1615.34 
-294.274 669.795 -1140.46 
-261.144 690.645 -1159.61 
954.574 -26.0117 -1833.6 
995.742 -1.9903 -1847.79 
1237.77 -192.71 -1901.76 
1278.6 -169.261 -1914.08 
-419.489 754.298 -1080.68 
-386.805 775.068 -1100.65 
1408.32 -23.2437 -2137.19 
1455.9 4.46075 -2154.59 
1858.85 1115.75 -1696.51 
1905.63 1144.94 -1732.85 
454.495 547.767 -1760.36 
499.863 575.436 -1783.29 
-638.052 802.516 -985.84 
-606.815 822.574 -1005.52 
1217.71 -55.2877 -2009.69 
1262.32 -29.35 -2025.18 
283.63 371.016 -1529.29 
322.278 394.439 -1547.02 
-2577.06 430.271 -999.821 
-2545.8 450.135 -1008 
-2370.79 195.505 -962.746 
-2342.82 212.949 -966.899 
-1904.49 796.953 -1028.95 
-1870.31 819.042 -1045.68 
778.786 535.207 -1907.63 
826.98 564.443 -1932.12 
1591.46 -18.9757 -2142.29 
1638.92 8.61603 -2160.25 
1068.22 203.848 -2033.98 
1115.96 232.138 -2053.99 
-2495.82 35.4263 -853.72 
-2471.65 50.3728 -853.912 
-2745.57 222.712 -850.136 
-2719.41 239.231 -853.102 
-2239.05 -314.071 -554.611 
-2225.39 -306.036 -547.054 
-2610.25 130.29 -872.714 
-2584.6 146.306 -874.48 
667.983 148.46 -1698.5 
707.997 172.189 -1714.26 
-2861.41 297.74 -834.178 
-2834.77 314.706 -838.118 
-432.965 632.908 -1063.79 
-401.743 652.598 -1081.4 
-291.965 512.076 -1094.75 
-261.32 531.171 -1110.72 
-72.2079 505.186 -1280.65 
-37.6185 526.542 -1298.29 
-1627.38 461.975 -961.022 
-1598.23 480.423 -971.868 
-538.493 675.563 -1003.69 
-508.13 694.849 -1021.42 
-2227.05 121.331 -935.418 
-2200.61 137.704 -938.39 
-2238.65 -106.691 -750.911 
-2218.55 -94.4731 -748.455 
405.378 210.671 -1466.76 
440.938 231.948 -1481.45 
-2077.01 309.728 -1004.98 
-2047.49 328.224 -1012.23 
176.048 357.829 -1445.05 
212.775 380.119 -1461.71 
-1500.51 574.069 -972.797 
-1470.27 593.327 -986.082 
1020.77 -199.711 -1693.67 
1057.01 -178.933 -1703.91 
915.664 571.214 -2004.68 
966.236 601.886 -2030.82 
-806.149 870.946 -938.973 
-775.132 891.039 -959.168 
566.391 118.26 -1544.32 
602.686 139.765 -1558.24 
2418.47 -698.613 -635.463 
2423.3 -697.62 -632.971 
-1210.38 990.855 -859.172 
-1179.52 1011.17 -880.019 
-1912.66 498.926 -1016.1 
-1881.45 518.729 -1027.28 
822.724 -54.1867 -1648.45 
859.507 -32.7686 -1660.56 
-2623.83 699.826 -965.569 
-2590.88 721.186 -978.317 
-3036.1 921.257 -513.551 
-3011.1 938.43 -526.284 
1145.73 -112.291 -1870.21 
1186.68 -88.5993 -1883.55 
-445.536 505.119 -1007.22 
-416.761 523.134 -1022.09 
895.144 -24.5287 -1775.01 
935.042 -1.23691 -1788.69 
71.2231 459.76 -1395.95 
107.878 482.22 -1413.89 
-1774.96 353.787 -959.412 
-1746.58 371.616 -967.908 
533.579 302.373 -1680.57 
574.761 327.105 -1698.68 
-637.83 697.006 -984.931 
-607.558 716.301 -1002.68 
1349.24 -183.968 -1966.92 
1391.5 -159.689 -1980.1 
1158.64 346.456 -2156.18 
1210.37 377.341 -2179.84 
-2085.8 620.559 -1039.06 
-2052.68 641.745 -1052.19 
-157.102 448.001 -1176.97 
-125.319 467.619 -1192.65 
-1186.13 649.549 -929.16 
-1156.74 668.375 -944.309 
-906.089 663.777 -908.985 
-877.474 682.1 -924.952 
1908.86 -406.643 -1606.15 
1939.82 -389.585 -1614.24 
-2056.24 135.383 -923.412 
-2030.22 151.49 -926.983 
-2999.07 1028.95 -496.107 
-2973.57 1046.61 -510.78 
-639.055 1048.69 -921.948 
-607.105 1069.61 -945.686 
-1324.26 808.542 -932.867 
-1293.13 828.711 -950.599 
562.803 542.383 -1813.51 
609.198 570.622 -1836.96 
-1465.49 684.512 -973.905 
-1434.29 704.529 -989.298 
-1029.22 703.73 -910.233 
-1000.03 722.498 -926.631 
-3091.41 738.203 -596.539 
-3066.02 755.285 -606.353 
-3059.44 494.334 -668.263 
-3034.61 510.638 -674.187 
474.094 78.4593 -1404.6 
506.909 97.8595 -1416.63 
-3017.73 355.504 -715.223 
-2993.11 371.42 -719.032 
1519.25 -333.719 -1850.18 
1557.16 -312.312 -1860.27 
63.4111 348.748 -1301.8 
96.8822 369.128 -1317.06 
-2006.44 -12.8698 -799.114 
-1984.74 0.409023 -799.269 
1820.88 1005.78 -1805.55 
1869.28 1035.74 -1840.53 
1457.05 -482.213 -1696.66 
1490.14 -463.901 -1702.85 
-1915.54 204.466 -946.879 
-1888.57 221.224 -952.217 
1684.42 -426.053 -1799.6 
1720.08 -406.197 -1808.07 
-109.401 337.589 -1139.28 
-79.5614 355.847 -1152.82 
1610.35 -488.793 -1757.43 
1644.57 -469.872 -1764.3 
943.574 -185.274 -1612.15 
978.146 -165.43 -1621.92 
-2410.2 -187.026 -679.802 
-2392.22 -176.161 -674.979 
178.838 489.323 -1489.08 
217.769 513.153 -1508.44 
42.2141 669.267 -1413.52 
81.2004 693.491 -1435.31 
1495.2 -211.765 -2021.99 
1538.28 -187.092 -2035.4 
1265.48 -337.551 -1781.81 
1302.16 -316.824 -1790.74 
-211.931 380.43 -1028.46 
-184.14 397.581 -1041.78 
313.074 223.365 -1434.3 
348.131 244.392 -1448.77 
1384.92 -510.933 -1591.8 
1415.41 -494.195 -1596.59 
-1925.68 387.223 -1011.25 
-1895.55 406.181 -1020.33 
-2106.28 1051.13 -952.291 
-2071.31 1074.21 -972.642 
1095.52 -305.876 -1675.52 
1130.27 -286.19 -1683.89 
612.911 769.283 -1759.31 
659.992 798.327 -1786.67 
782.345 842.157 -1735.97 
829.269 871.199 -1764.92 
728.258 32.6613 -1639.96 
765.772 54.6898 -1653.37 
1207.28 65.4513 -2062.16 
1254.23 92.9842 -2080.19 
-1741.55 991.769 -985.804 
-1706.9 1014.46 -1006.2 
-1610.17 625.188 -996.858 
-1578.74 645.27 -1010.97 
-2845.57 681.481 -841.398 
-2815.35 701.255 -852.428 
-2728.56 78.6673 -770.393 
-2705.58 93.0417 -770.237 
946.584 995.985 -1662.37 
992.917 1024.91 -1694.05 
1242.29 -500.123 -1554.85 
1272.25 -483.662 -1559.23 
-755.796 580.054 -906.83 
-728.215 597.577 -921.626 
-3016.07 1125.45 -394.709 
-2992.05 1142.41 -410.421 
-634.227 501.572 -912.84 
-607.397 518.479 -926.546 
-2839.38 136.236 -723.039 
-2816.82 150.495 -723.341 
909.214 172.902 -1916.17 
954.164 199.529 -1934.43 
820.834 277.383 -1880.35 
866.02 304.362 -1900.06 
-1684.91 201.657 -870.933 
-1660.11 217.078 -876.283 
1503.66 -78.2217 -2200.84 
1552.09 -50.1399 -2217.91 
1686.64 840.068 -2042.28 
1739.3 872.272 -2075.48 
-877.352 763.309 -949.292 
-846.947 782.862 -967.416 
-917.116 955.77 -909.425 
-885.858 976.187 -930.695 
1071.68 545.975 -2073.11 
1123.39 577.232 -2099.64 
1404.19 -345.884 -1851.33 
1442.2 -324.411 -1860.92 
759.321 1032.88 -1519.47 
802.924 1060.31 -1550.39 
19.7421 274.827 773.23 
4.0876 266.081 773.352 
-1318.35 655.813 -945.745 
-1288.3 675.066 -960.79 
-3067.32 1252.25 -222.553 
-3046.12 1267.8 -239.297 
-1041.37 944.325 -904.179 
-1010.14 964.733 -924.897 
-2970.61 253.336 -719.507 
-2946.87 268.531 -721.597 
265.5 128.664 -1286.69 
296.331 147.035 -1298.33 
1315.3 90.9083 -2113.02 
1363.49 119.198 -2132.11 
1075.92 -413.993 -1593.23 
1107.81 -396.193 -1599.03 
52.4061 215.538 -1169.38 
81.6038 233.156 -1181.29 
-2642.34 22.9673 -792.522 
-2619.47 37.1504 -791.711 
-2221.65 -239.444 -643.07 
-2205.28 -229.679 -637.511 
-425.258 376.483 -939.76 
-399.245 392.63 -951.882 
1652.96 -600.263 -1658.11 
1683.78 -583.565 -1662.38 
-316.877 327.546 -951.955 
-291.186 343.387 -963.533 
332.313 122.877 -1364.11 
364.8 142.198 -1376.32 
1453.88 -622.573 -1532.27 
1481.88 -607.526 -1534.8 
-544.376 575.265 -990.581 
-515.208 593.664 -1006.38 
-2087 -164.639 -683.447 
-2069.24 -153.941 -679.858 
164.491 190.768 -1252.87 
195.245 209.231 -1265.17 
-1162.14 1125.39 -641.789 
-1135.24 1143.6 -663.751 
-915.753 487.963 -846.448 
-890.16 504.185 -858.762 
-549.192 428.77 128.274 
-547.497 430.686 122.672 
-1325.63 555.192 -914.241 
-1297.22 573.305 -927.222 
-2995.07 1247.16 -334.92 
-2971.39 1264.13 -352.503 
-2286.46 1000.02 -934.556 
-2252.08 1022.69 -953.41 
-2951.44 132.183 -664.288 
-2930.11 145.733 -663.845 
657.603 -62.4897 -1438.03 
689.652 -43.8426 -1448.17 
-2846.63 18.3193 -651.941 
-2826.77 30.7657 -649.597 
374.887 16.4853 -1227.52 
403.16 33.1147 -1236.99 
-1561.67 170.741 -834.13 
-1538.19 185.291 -838.973 
820.504 -170.381 -1504.47 
852.888 -151.774 -1513.48 
-157.994 545.395 -1231.2 
-124.068 566.454 -1249.02 
-2066.33 -289.205 -562.352 
-2052.54 -281.089 -555.729 
-506.972 399.536 -859.151 
-482.509 414.828 -870.949 
564.535 -42.3387 -1274.32 
593.08 -25.702 -1283.49 
-2578.24 -163.597 -665.338 
-2560.12 -152.569 -660.429 
-3091.11 407.912 -645.657 
-3067.54 423.326 -649.774 
-29.5659 163.988 -961.976 
-5.55333 178.471 -971.35 
-2511.61 -62.7597 -781.166 
-2489.98 -49.4943 -779.039 
-634.299 596.404 -954.969 
-605.634 614.567 -970.687 
-1807.82 56.1553 -804.286 
-1785.68 69.7652 -806.228 
-1951.75 -117.75 -707.117 
-1933.22 -106.551 -704.877 
-2381.07 306.132 -983.523 
-2351.6 324.661 -989.808 
1005.62 176.817 -1976.8 
1051.87 204.198 -1995.78 
-164.593 278.146 -981.423 
-138.892 293.866 -992.676 
-1157.01 532.678 -907.07 
-1129.22 550.335 -920.009 
1367.99 237.985 -2208.7 
1419.64 268.58 -2231.26 
-1494.07 432.681 -931.086 
-1466.09 450.352 -941.526 
1250.14 -425.673 -1667.86 
1283.39 -407.123 -1674.38 
-2277.89 19.3333 -865.185 
-2253.93 34.0693 -865.699 
1490.48 346.328 -2257.7 
1544.07 378.226 -2282.86 
-2407.62 -312.183 -540.569 
-2394.01 -304.133 -532.535 
140.84 76.9953 -1099.93 
167.036 92.5662 -1109.07 
-2802.45 -102.789 -559.453 
-2785.91 -92.5303 -554.388 
702.166 -159.849 -1337.49 
730.922 -143.334 -1345.29 
942.994 -299.536 -1498.15 
973.882 -282.077 -1505.08 
-372.564 240.692 -740.105 
-352.517 253.055 -748.54 
1266.26 -590.293 -1438.81 
1292.65 -576.097 -1440.83 
1111.42 -508.313 -1463.36 
1139.36 -493.012 -1466.66 
-2693.79 -74.5717 -676.231 
-2674.44 -62.627 -672.734 
-32.8939 343.812 -1223.14 
-1.1565 363.182 -1237.54 
226.866 37.5943 -1142.74 
253.576 53.3764 -1151.65 
-1636.32 -33.3017 -635.533 
-1619.2 -22.8571 -635.135 
561.634 198.066 -1610.41 
600.197 221.055 -1626.23 
1380.77 -673.663 -1347.37 
1404.1 -661.456 -1347.54 
-2496.78 158.371 -906.717 
-2470.26 174.924 -909.505 
98.8671 39.3723 -932.864 
120.883 52.4168 -940.087 
574.037 -57.7708 -1363.79 
604.522 -40.0193 -1373.31 
1960.41 -709.573 -981.427 
1973.96 -703.353 -979.921 
-816.709 454.354 -828.914 
-791.98 469.979 -840.743 
-627.171 395.856 -814.154 
-603.608 410.64 -825.286 
-1613.62 288.979 -885.893 
-1587.8 305.144 -893.112 
-1807.51 -53.7127 -688.338 
-1789.08 -42.4854 -687.498 
187.792 257.838 -1348.73 
221.353 278.074 -1362.95 
-1648.9 54.7762 -730.618 
-1628.74 67.1742 -732.434 
-721.385 356.264 -737.167 
-699.829 369.815 -746.827 
-1018.11 369.717 -721.065 
-996.349 383.487 -730.127 
740.929 402.985 -1868.77 
787.09 430.789 -1890.5 
1494.38 -729.393 -1362.15 
1517.38 -717.503 -1361.68 
-756.178 687.372 -946.433 
-726.709 706.205 -963.452 
-241.722 213.857 -830.777 
-220 227.129 -839.654 
468.926 152.064 -1505.54 
504.769 173.386 -1519.58 
-127.591 139.474 -816.864 
-107.038 151.892 -824.573 
-2501.31 -293.427 -520.548 
-2487.86 -285.411 -512.489 
-350.544 402.687 -1006.44 
-322.852 419.853 -1019.67 
-2283.54 -415.923 -456.828 
-2273.01 -409.911 -446.646 
1822.76 -797.953 -997.227 
1836.1 -791.975 -993.874 
-2160.39 814.784 -990.764 
-2126.56 836.769 -1006.93 
-2967.43 13.9713 -538.433 
-2950.08 24.9607 -534.948 
912.844 -97.7318 -1679.18 
949.812 -76.3043 -1690.92 
866.034 -292.485 -1401.04 
894.826 -276.226 -1407.25 
-3132.61 259.366 -592.205 
-3111.55 273.034 -593.15 
772.579 -257.407 -1209.7 
797.363 -243.432 -1215.03 
973.784 -408.713 -1350.2 
1000.18 -394.117 -1354.21 
418.366 -75.2527 -1109.08 
442.98 -60.9604 -1116.18 
1062.21 -132.78 -1797.13 
1101.4 -110.146 -1809.4 
609.53 -184.298 -1116.72 
633.048 -170.897 -1122.36 
320.466 -58.6867 -1072.09 
344.516 -44.6742 -1079 
-1937.92 -272.196 -554.623 
-1924.36 -264.214 -548.576 
2019.2 -785.733 -549.495 
2021.88 -786.075 -543.847 
908.534 65.9263 -1850.33 
950.988 90.8854 -1866.2 
911.644 375.949 -1980.69 
959.917 404.907 -2003.1 
626.534 6.41229 -1498.87 
660.672 26.4246 -1510.6 
1189.57 -337.651 -1692.03 
1224.27 -318.075 -1700.17 
1179.87 -587.003 -1357.63 
1204.53 -573.801 -1358.95 
30.2061 66.4683 -632.158 
45.5397 75.6343 -637.687 
499.907 -95.7207 -779.625 
516.505 -86.2174 -784.347 
377.983 333.602 -1520.35 
415.94 356.525 -1537.57 
1356.52 -255.841 -1878.52 
1396.05 -233.301 -1889.82 
-2387.72 -110.211 -747.362 
-2367.5 -97.8931 -744.451 
515.392 -119.298 -1124.83 
539.828 -105.215 -1131.48 
-2177.73 -440.883 -438.316 
-2168.02 -435.424 -427.816 
-1437.08 157.459 -789.632 
-1414.96 171.154 -794.244 
-2265.66 205.746 -952.298 
-2238.01 222.996 -956.828 
1683.09 -761.603 -1499.19 
1708.72 -748.268 -1499.52 
-540.365 466.649 -914.767 
-513.949 483.225 -928.08 
-2104.16 943.196 -939.114 
-2070.46 965.316 -957.413 
48.7301 112.449 -1046.53 
74.1378 127.642 -1055.72 
-1776.08 448.208 -974.17 
-1746.51 466.912 -984.485 
1361.12 -594.923 -1493.34 
1388.6 -580.117 -1495.88 
-846.193 373.176 -718.418 
-824.73 386.733 -727.951 
-1513.38 51.6533 -701.309 
-1494.16 63.4667 -703.207 
-164.772 113.01 -573.152 
-150.099 121.919 -578.652 
202.281 -6.40973 -742.7 
219.279 3.564 -748.068 
-2665.93 -265.372 -483.044 
-2652.86 -257.483 -474.838 
453.651 -64.9097 -641.325 
467.363 -57.044 -645.567 
536.864 24.9173 -1422.82 
569.528 44.1147 -1434.14 
756.966 -54.2927 -1532.6 
791.145 -34.3981 -1543.77 
-1142.61 261.672 -714.401 
-1121.77 274.727 -721.138 
1492.1 -526.073 -1582.2 
1522.07 -509.699 -1586.91 
-764.332 305.474 -537.803 
-747.827 315.961 -545.091 
1600.01 -800.603 -1192.36 
1618.24 -791.701 -1189.72 
300.744 -37.1807 -820.691 
319.137 -26.463 -826.264 
1415.07 -81.7547 -2029.62 
1459.61 -55.9591 -2045.25 
-1974.94 280.362 -991.217 
-1946.16 298.341 -998.091 
-1153.96 401.467 -817.485 
-1129.45 416.952 -827.436 
596.275 -139.038 -787.837 
612.526 -129.841 -792.063 
-2390.52 -415.103 -416.31 
-2380.77 -409.519 -405.605 
-1765.52 -186.526 -541.643 
-1751.76 -178.317 -537.499 
1659.29 -771.583 -1361.79 
1681.65 -760.19 -1360.96 
1438.52 -784.933 -1232.85 
1458.09 -775.165 -1230.36 
1333.52 -434.523 -1728.2 
1367.97 -415.295 -1735.17 
-2159.03 -87.6027 -765.724 
-2138.53 -75.1378 -763.914 
-2912.31 -132.984 -418.322 
-2899.18 -124.76 -411.487 
-2761.89 -242.995 -389.581 
-2750.64 -236.126 -380.918 
-2472.21 -379.958 -380.376 
-2462.86 -374.526 -369.87 
-28.0749 47.1913 -492.645 
-16.0862 54.3611 -496.742 
1116.25 -563.293 -1261.08 
1138.95 -551.189 -1262.03 
1372.42 -786.123 -1181.91 
1390.89 -776.979 -1178.9 
897.094 -359.566 -1299.7 
922.881 -345.219 -1304.08 
-2575.33 -360.301 -370.586 
-2565.87 -354.745 -360.118 
1236.61 -668.933 -1257.56 
1258.11 -657.765 -1256.86 
868.254 -333.961 -1089.56 
889.387 -322.301 -1092.93 
1777.47 -361.528 -1560.33 
1807.96 -344.62 -1568.61 
-1580.57 -123.486 -539.391 
-1566.59 -115.075 -536.84 
1019.2 -458.793 -1236.33 
1042.42 -446.166 -1238.78 
621.524 -140.655 -1265.57 
648.896 -124.903 -1273.04 
-2054.25 -408.173 -428.742 
-2044.67 -402.758 -419.081 
-320.28 191.098 -586.738 
-304.347 200.932 -593.368 
-2866.75 1289.2 -34.6267 
-2849.92 1302.18 -51.281 
1509.25 -116.338 -2067.27 
1554.22 -90.3773 -2082.76 
-1399.44 331.666 -864.05 
-1374.07 347.583 -872.432 
-2228.42 -538.193 -349.468 
-2221.59 -534.593 -336.471 
-1022.17 806.601 -919.362 
-991.854 826.217 -937.716 
685.99 -221.851 -897.212 
703.918 -211.838 -900.883 
-581.455 286.055 -595.7 
-564.054 296.99 -603.476 
-66.0949 97.6273 -632.356 
-50.3276 107.129 -638.216 
1506.91 -14.8657 -2139.04 
1554.45 12.8096 -2156.85 
-2399.49 -531.393 -327.096 
-2392.85 -527.852 -313.65 
1456.27 -722.513 -806.959 
1466.41 -718.2 -802.798 
-3072.09 70.2903 -509.162 
-3054.76 81.3982 -506.25 
-474.311 241.095 -580.549 
-457.834 251.378 -587.668 
-1825.62 112.465 -861.252 
-1801.62 127.283 -864.56 
337.052 -40.7807 -583.919 
349.818 -33.4007 -587.928 
188.487 5.9433 -962.245 
210.752 19.0523 -969.277 
-1267.98 143.851 -670.387 
-1249.03 155.607 -674.368 
1585.31 -305.379 -1943.31 
1625.56 -282.562 -1954.7 
1660.08 424.321 -2217.51 
1713.16 456.022 -2244.25 
-87.5379 202.28 -1074 
-60.4715 218.649 -1084.68 
1602.38 -833.843 -956.431 
1614.79 -828.429 -951.603 
1548.83 -665.303 -1547.56 
1576.65 -650.471 -1549.63 
-897.172 283.575 -404.581 
-883.771 292.221 -410.247 
-1623.73 891.171 -813.785 
-1594.18 910.631 -831.484 
239.307 -1.46973 -520.473 
251.093 5.4272 -524.531 
-226.28 163.635 -676.528 
-208.639 174.402 -683.492 
-883.564 309.517 -593.886 
-865.526 320.945 -601.329 
-2651.54 -357.893 -177.125 
-2646.46 -354.902 -165.213 
2034.37 -432.933 -290.832 
2034.13 -434.358 -289.924 
-2896.28 -186.698 -241.556 
-2887.78 -181.316 -232.594 
-2519.69 -406.863 -199.071 
-2514.75 -404.068 -186.74 
-3130.93 522.849 -580.825 
-3107.77 538.23 -586.506 
811.194 -89.2217 -391.611 
818.292 -85.3937 -394.62 
-2984.45 935.575 -292.513 
-2964.58 949.738 -304.153 
1989 -726.043 -526.772 
1991.71 -726.242 -521.986 
1595.87 56.1432 -2234.03 
1646.14 85.5305 -2253.99 
1131.63 -322.459 -690.778 
1143.14 -316.53 -692.332 
1557.03 -428.443 -1719.34 
1590.99 -409.564 -1726.92 
932.014 -297.17 -820.886 
947.092 -289.032 -823.281 
-474.889 276.913 -746.876 
-454.201 289.746 -755.763 
1914.58 -304.339 -352.262 
1917.11 -303.867 -353.816 
-2695.89 -312.265 -298.209 
-2687.51 -307.226 -287.833 
866.644 -213.085 -692.369 
879.579 -206.047 -695.272 
531.262 -161.755 -969.347 
551.657 -150.139 -974.216 
2090.94 -660.883 -583.652 
2095.42 -659.963 -580.69 
-1875.67 -347.61 -384.637 
-1866.85 -342.584 -376.227 
-227.445 128.473 -451.06 
-215.39 135.88 -455.867 
1697.3 -804.813 -1237.8 
1716.4 -795.421 -1235.62 
-4.60291 70.5522 -829.987 
15.448 82.5195 -836.831 
776.458 -279.862 -1041.23 
797.094 -268.378 -1045.03 
-2154.46 -588.403 -318.614 
-2148.92 -585.673 -304.677 
-2027.96 -482.483 -357.23 
-2020.76 -478.61 -345.799 
-1454.94 -19.0527 -609.128 
-1438.59 -9.08377 -609.262 
1063.08 -507.793 -1141.74 
1083.58 -496.877 -1142.77 
-1652.81 -277.536 -352.551 
-1644.47 -272.715 -345.757 
1046.93 -78.7407 -1890.26 
1088.81 -54.4195 -1904.1 
2102.57 -762.713 -368.189 
2101.08 -765.495 -361.95 
707.734 -166.558 -649.101 
720.321 -159.602 -652.17 
66.2071 235.446 -1229.3 
96.9637 254.015 -1242.01 
-644.032 281.194 -371.929 
-631.812 289.079 -377.96 
2083.92 -189.086 -192.857 
2083.5 -190.194 -195.864 
582.334 -41.9327 -427.192 
591.043 -37.01 -430.736 
-777.72 287.464 -367.995 
-765.327 295.493 -373.783 
-553.322 250.513 -472.824 
-539.158 259.467 -479.197 
-2291.64 -662.093 -255.093 
-2288.03 -660.614 -239.045 
350.443 -77.7227 -917.619 
370.662 -66.013 -923.225 
1608.84 -722.313 -1453.99 
1633.88 -709.244 -1454.55 
1760.66 -863.253 -1023.07 
1774.12 -857.309 -1018.55 
-2409.51 -656.543 -154.208 
-2408.02 -656.273 -137.292 
-2811.67 -265.134 -88.4167 
-2807.59 -262.522 -77.2064 
1315.99 -728.283 -980.358 
1330.34 -721.454 -976.907 
-3005.49 -136.203 -269.995 
-2995.72 -129.942 -261.875 
-2790.56 -180.85 -458.924 
-2777.1 -172.547 -451.789 
1744.02 -321.103 -423.444 
1748.34 -319.569 -424.747 
1811.91 313.066 -2155.51 
1862.31 342.944 -2180.18 
-2441.84 -456.173 -121.219 
-2439.28 -454.891 -107.658 
980.674 -265.37 -656.519 
992.127 -259.332 -658.511 
-2794.63 -294.091 -249.497 
-2787.06 -289.48 -238.88 
134.608 35.8293 -471.434 
145.745 42.4364 -475.584 
1365.12 -298.236 -524.012 
1372.57 -294.709 -525.468 
-3051.46 134.982 -632.319 
-3030.71 148.226 -631.465 
113.533 9.80627 -680.745 
129.365 19.1427 -685.772 
-603.895 306.584 -719.176 
-583.388 319.397 -728.1 
1626.3 -182.12 -2084.74 
1670.89 -156.522 -2099.42 
1210.64 -400.623 -742.893 
1222.54 -394.618 -743.566 
-1646.99 -224.404 -457.033 
-1635.74 -217.769 -451.924 
-1243.63 52.4493 -458.6 
-1230.5 60.603 -459.553 
960.864 -393.673 -1118.93 
982.005 -382.141 -1121.63 
2092.9 -75.1997 -76.2907 
2090.75 -77.1184 -80.616 
-1728.76 -343.311 -290.105 
-1722.35 -339.73 -281.505 
2054.08 -653.343 -325.091 
2052.63 -655.893 -320.44 
1380.97 -699.533 -813.337 
1391.58 -694.885 -809.451 
2201.52 -59.9767 179.36 
2193.36 -65.4428 176.204 
605.239 -76.9227 -546.688 
616.393 -70.6255 -550.452 
1091.81 -394.226 -872.193 
1106.98 -386.255 -873.556 
456.946 -40.7137 -430.396 
465.936 -35.5929 -433.673 
-100.064 59.9783 -356.167 
-91.0415 65.4392 -359.403 
-1082.93 145.452 -504.93 
-1068.13 154.718 -508.288 
1695.22 323.287 -2135.15 
1745.42 353.091 -2159.58 
1733.99 -821.263 -736.395 
1741.16 -818.957 -730.647 
796.474 -248.421 -1347.19 
824.514 -232.512 -1353.67 
-2613.72 -357.006 45.2903 
-2613.9 -357.123 58.5841 
985.964 -90.9767 -335.987 
991.476 -88.132 -339.024 
-2722.28 -323.776 17.8383 
-2721.35 -323.152 30.6109 
736.01 -51.6817 -286.62 
741.104 -48.9495 -289.423 
-2502.95 -361.6 25.3182 
-2502.88 -361.603 38.2879 
1108.67 -133.413 -372.055 
1114.44 -130.515 -374.864 
633.746 -14.4077 -288.736 
639.382 -11.2606 -291.981 
1600.07 -796.493 -718.964 
1607.26 -794.083 -713.219 
924.004 -169.516 -511.21 
932.998 -164.738 -513.836 
44.7291 30.2223 -366.417 
53.499 35.4442 -369.538 
804.864 -262.054 -877.785 
821.788 -252.732 -880.886 
2044.35 65.2403 161.926 
2037.96 61.0871 156.757 
-2236.5 -766.433 -223.039 
-2234.66 -766.192 -205.009 
1654.85 -681.833 -1548.75 
1682.39 -667.219 -1550.8 
1699.71 43.6053 -98.4238 
1699.75 43.2952 -104.091 
2077.05 -862.453 -241.316 
2071.74 -867.674 -232.343 
1695.48 -77.0017 -2146.84 
1742.36 -49.8805 -2164.04 
1153.45 -194.68 -459.541 
1160.66 -191.062 -461.93 
-974.689 265.183 -287.449 
-964.072 272.172 -291.802 
2110.33 -422.563 -100.309 
2105.61 -426.636 -98.4995 
-1698.81 -385.25 -143.185 
-1696.26 -384.032 -132.907 
-994.221 263.825 -538.86 
-977.706 274.298 -544.826 
1887.72 -801.283 -716.605 
1894.37 -799.288 -711.47 
-1814.74 -406.763 -179.992 
-1811.33 -405.052 -169.281 
-1396.42 -131.31 -388.118 
-1386.34 -125.257 -384.867 
1546.17 -841.413 -1088.23 
1561.68 -834.161 -1084.01 
-1541.91 -244.924 -256.73 
-1535.69 -241.323 -250.164 
1588.32 -59.9127 -2150.27 
1635.61 -32.4984 -2167.54 
-2923.77 -196.706 -100.969 
-2918.6 -193.305 -90.8127 
-3057 -25.8477 -315.324 
-3045.09 -18.1176 -309.395 
360.089 -12.3828 -288.77 
366.171 -8.90314 -291.374 
-2352.54 -874.153 -126.987 
-2353.73 -875.865 -106.059 
1304.49 -592.193 -782.001 
1315.45 -587.12 -779.674 
508.383 4.28827 -267.664 
513.89 7.42236 -270.798 
1715.17 -287.687 -2030.64 
1757.41 -263.69 -2043.26 
1884.43 141.789 102.446 
1880.37 139.188 95.8781 
-368.49 154.097 -342.127 
-358.534 160.345 -346.322 
-3183.9 300.658 -479.904 
-3165.02 313.129 -480.721 
1711.85 -364.944 -1887.65 
1750.06 -343.472 -1897.9 
-204.217 109.514 -313.403 
-195.588 114.858 -316.998 
1301.55 -64.4567 -291.405 
1305.76 -62.4073 -295.408 
1537.01 -371.781 -526.107 
1543.59 -368.949 -526.661 
1705.93 -111.09 -266.621 
1708.53 -110.185 -270.609 
-771.68 298.937 -225.638 
-762.523 305.076 -230.695 
639.199 -246.563 -1011.93 
659.662 -235.086 -1015.8 
213.927 17.8343 -358.159 
222.13 22.6572 -361.418 
-631.766 298.065 -241.829 
-622.456 304.258 -247.325 
1596.2 55.5153 -90.0177 
1596.32 55.2932 -95.5896 
1272.9 -226.784 -437.274 
1279.12 -223.84 -439.224 
1673.61 -469.983 -1816.44 
1709.29 -450.194 -1824.2 
924.694 -347.624 -948.497 
942.32 -338.074 -950.809 
697.828 -63.8807 -411.62 
705.795 -59.4641 -414.945 
2049.83 -724.713 -73.6898 
2041.87 -731.229 -66.0389 
-2485.38 -333.04 173.654 
-2488.55 -334.91 187.054 
-1957.88 -585.523 -143.439 
-1956.71 -585.424 -128.867 
1801.71 -866.863 -882.609 
1811.79 -862.938 -877.177 
1696.81 54.5013 -2226.55 
1746.73 83.6563 -2246.69 
1399.39 -801.963 -1006.49 
1413.57 -795.394 -1002.08 
2138.98 98.1573 286.76 
2129.83 92.4045 281.594 
-2697.99 -271.228 171.573 
-2700.22 -272.382 184.358 
978.374 -22.2157 -208.299 
981.525 -20.6371 -211.715 
-3174.95 221.94 -397.319 
-3158.71 232.701 -396.168 
1426.74 -87.3317 -307.039 
1430.92 -85.3734 -311.04 
-906.127 552.737 -888.103 
-878.994 569.983 -901.903 
1566.16 -83.5037 -283.381 
1569.6 -82.0087 -287.638 
-2583.43 -274.579 256.637 
-2587.86 -277.064 269.77 
1807.84 -68.6257 -2185 
1855.51 -41.0492 -2202.88 
1021.3 -385.96 -987.578 
1039.36 -376.256 -989.692 
-1748.95 -509.623 -40.6288 
-1749.83 -510.641 -27.2694 
1201.55 -609.573 -989.039 
1217.36 -601.654 -987.529 
1753.77 -841.813 -1137.03 
1770.09 -834.133 -1133.64 
1504.42 78.8993 -106.078 
1505.27 79.1727 -111.955 
1932.56 33.7543 -83.8898 
1931.82 32.9022 -89.8572 
-133.503 93.1963 -215.845 
-127.412 96.9948 -218.663 
1970.44 286.55 248.746 
1964.12 282.857 240.305 
12.8801 41.3443 -138.957 
16.4808 43.5419 -140.675 
865.404 19.7083 -136.505 
867.431 20.7252 -139.925 
-2837.38 -232.848 52.7183 
-2836.27 -231.926 64.35 
180.072 56.1523 -136.141 
183.478 58.2214 -138.525 
812.494 -140.033 -524.995 
822.255 -134.725 -527.975 
2240.74 -52.0427 319.616 
2229.31 -59.435 317.159 
284.574 45.3493 -162.374 
288.334 47.5813 -164.996 
-359.935 169.606 -224.092 
-352.614 174.325 -227.798 
96.5861 3.3573 -798.46 
115.14 14.2944 -804.118 
-3133.17 69.7323 -315.406 
-3120.28 78.2318 -311.032 
2274.99 -210.183 224.856 
2264.31 -217.431 224.564 
1873.73 -128.464 -2097.25 
1918.71 -102.602 -2113.62 
1332.68 95.9463 -131.711 
1334.54 96.895 -137.647 
1803.25 -737.633 -586.666 
1807.55 -736.872 -581.609 
2163.87 88.6183 107.797 
2158.78 85.2394 101.543 
2246.31 11.2373 65.6533 
2241.38 7.79498 60.3237 
336.469 -31.9357 -414.544 
345.354 -26.8298 -417.577 
-502.966 231.995 -364.032 
-491.591 239.257 -369.462 
1479.97 -557.453 -632.46 
1487.48 -554.399 -630.197 
1185.83 -72.7127 -249.259 
1189.17 -71.1692 -252.542 
-2516.13 -239.645 382.234 
-2523.29 -243.695 395.405 
434.1 79.1753 -137.328 
437.344 81.1285 -140.77 
589.592 33.5153 -155.804 
592.618 35.2183 -158.922 
1676.92 191.293 73.6313 
1674.3 189.683 66.4804 
-2829.19 -192.723 191.526 
-2830.98 -193.442 203.337 
-441.414 247.672 -162.843 
-434.699 252.195 -167.361 
-215.342 186.96 -74.6768 
-211.586 189.57 -78.0567 
-1957.56 -405.123 322.698 
-1965.68 -410.18 337.107 
-1689.6 -367.829 193.713 
-1694.78 -371.149 205.911 
2182.21 20.0373 367.006 
2170.41 12.5714 363.697 
1801.01 444.001 187.571 
1797.8 442.469 176.266 
-1817.97 -359.632 296.994 
-1825.3 -364.171 310.053 
1137.3 -562.243 -1140.49 
1157.16 -551.82 -1140.7 
-3091.51 -25.3547 -183.5 
-3082.62 -19.4001 -176.61 
-2425.93 -287.81 354.375 
-2433.02 -291.923 368.015 
1443.55 154.156 -29.6447 
1443.38 153.979 -36.233 
707.345 -223.926 -754.5 
721.884 -215.923 -757.228 
1030.85 -216.362 -505.794 
1039.14 -212.115 -507.794 
1901.76 -146.06 -259.679 
1903.56 -145.727 -263.468 
306.792 -91.6467 -684.664 
321.506 -83.2016 -688.345 
1941.24 -602.573 -478.34 
1944.01 -602.508 -475.364 
1242.42 -300.713 -574.06 
1251.23 -296.37 -575.503 
-2037.04 -749.953 110.284 
-2043.16 -754.435 129.756 
1757.44 -683.983 -1586.92 
1785.7 -668.972 -1589.45 
-1437.28 -247.554 53.8423 
-1438.52 -248.382 62.2819 
-1607.79 -238.673 329.764 
-1615.13 -243.05 340.314 
-1564.04 -308.527 109.385 
-1566.92 -310.407 119.624 
1788.4 -514.433 -1795.67 
1823.01 -495.372 -1802.77 
-754.078 374.322 -92.7798 
-747.381 379.141 -98.3642 
1748.76 -723.773 -1479.85 
1774.17 -710.52 -1480.9 
1591.19 -841.713 -829.177 
1600.57 -838.096 -823.324 
1996.05 75.7213 59.6432 
1992.22 73.112 53.7163 
-2283.25 -905.693 -108.242 
-2285.26 -907.97 -86.7846 
1812.38 -332.38 -1924.32 
1851.59 -310.281 -1935.65 
51.8611 30.2733 -254.027 
57.9922 33.9353 -256.412 
-2681.31 -145.145 383.858 
-2687.41 -148.353 395.725 
2118.78 528.392 333.271 
2112.42 525.077 320.617 
1467.88 -218.424 -437.432 
1473.86 -215.645 -440.018 
327.621 113.108 -67.5698 
329.703 114.464 -70.8984 
-1813.71 -160.815 476.757 
-1823.47 -166.428 487.384 
1666.28 -723.803 -594.228 
1671.11 -722.678 -589.135 
1682.56 -264.013 -386.015 
1686.61 -262.519 -387.956 
715.999 -112.966 -520.425 
726.043 -107.417 -523.63 
1319.54 -385.849 -619.898 
1328.53 -381.567 -620.286 
575.639 -122.16 -643.826 
588.705 -114.808 -647.343 
73.0441 121.445 -45.4197 
75.0797 122.85 -48.1212 
1986.07 -727.423 -579.255 
1990.01 -726.905 -574.788 
1178 -506.413 -827.265 
1190.98 -499.958 -826.494 
-2206.6 -438.993 337.844 
-2214.99 -444.21 353.589 
-846.124 432.624 -42.2588 
-839.944 437.267 -48.3397 
-1486.17 -217.537 232.253 
-1491.23 -220.559 241.463 
-2376.39 -355.818 382.602 
-2384.82 -360.862 397.55 
-1187.71 58.2682 -145.962 
-1181.92 62.0815 -145.062 
-2792.26 1140.57 -107.881 
-2775.16 1153.42 -122.499 
-624.958 382.407 -109.714 
-617.994 387.368 -115.88 
1390.07 -434.723 -630.672 
1398.77 -430.721 -630.415 
-2219.88 -922.923 34.4153 
-2225.49 -927.369 56.9872 
-3025.83 -128.542 17.0373 
-3022.65 -126.167 26.9943 
1160.23 127.022 -86.8667 
1161.6 127.773 -92.6418 
977.124 108.332 -58.7697 
977.938 108.775 -63.562 
-2130.92 -336.176 444.034 
-2140.99 -342.214 458.428 
1546.01 225.055 95.2972 
1543.4 223.538 88.0002 
644.878 191.124 -95.6678 
647.822 193.051 -101.395 
1134.38 -276.999 -554.632 
1143.1 -272.629 -556.109 
-1630.21 -25.8917 457.897 
-1638.6 -30.4997 465.481 
-240.59 166.663 -180.548 
-234.5 170.62 -184.205 
-30.2199 120.025 -34.3568 
-28.2946 121.388 -36.7025 
-3004.98 526.556 -222.946 
-2990.36 536.875 -226.604 
-2511.79 -396.373 -76.9027 
-2509.62 -395.201 -63.9628 
1567.22 145.772 6.49524 
1565.93 144.893 -0.00434289 
845.544 -62.5858 -262.644 
849.809 -60.3886 -265.359 
2175.6 335.012 375.949 
2166.43 329.668 366.969 
-2858.45 -154.055 302.966 
-2862.46 -156.003 314.892 
-2040.69 -497.803 208.719 
-2046.84 -501.842 224.26 
2055.17 196.372 242.881 
2048.05 192.021 235.837 
-2521.09 -90.1997 530.699 
-2530.37 -95.2316 542.151 
-2271.13 -301.073 510.042 
-2282.21 -307.61 524.586 
1095.04 249.923 36.6992 
1094.71 249.917 29.6721 
-2984.42 -140.441 122.703 
-2983.89 -139.657 133.483 
909.724 283.112 42.2483 
909.856 283.481 35.1119 
-434.707 340.033 -53.8328 
-429.725 343.7 -59.321 
-2401.1 -146.993 534.526 
-2411.17 -152.622 546.746 
495.239 271.01 28.8823 
496.218 271.961 22.9033 
1454.62 -880.713 -869.588 
1464.81 -876.658 -862.956 
833.114 122.678 -77.9458 
834.738 123.656 -82.7711 
1649.98 -350.104 -470.603 
1655.29 -348.016 -471.46 
745.988 14.5623 -189.162 
749.38 16.4088 -192.544 
-2708.11 -229.105 298.087 
-2712.91 -231.694 310.978 
1322.04 243.987 34.4622 
1321.37 243.705 26.9658 
2244.05 73.5193 485.443 
2229.87 64.7255 481.799 
1726.45 -637.303 -498.164 
1729.71 -636.964 -494.154 
1988.8 -466.753 -404.799 
1991 -466.799 -403.925 
-1838.89 -416.013 186.797 
-1844.12 -419.406 200.197 
-1939.37 -274.102 423.224 
-1948.69 -279.634 435.87 
-148.422 311.121 42.4822 
-146.398 312.918 37.4584 
-1346.5 -185.806 160.468 
-1349.82 -187.773 168.272 
1577.77 -206.369 -389.181 
1582.57 -204.299 -391.936 
-2376.27 -1057.11 240.515 
-2387.65 -1065.17 267.305 
741.661 295.11 19.8372 
742.684 296.07 12.7484 
-1737.38 -398.773 35.6963 
-1739.08 -400.074 47.5169 
1894.7 -710.163 -1434.14 
1918.93 -697.614 -1435.5 
1236.85 -623.713 -868.278 
1249.64 -617.6 -865.787 
1859 104.25 -1.31076 
1857.07 102.844 -7.82735 
38.4551 284.358 81.1053 
39.0441 285.214 76.3648 
1885.27 -641.803 -1334.3 
1907.8 -630.141 -1336.21 
2235.69 356.598 485.201 
2224.06 349.829 476.411 
-1697.59 129.522 546.759 
-1706.57 124.87 552.271 
2216.85 667.289 469.185 
2208.4 662.97 454.665 
-724.971 529.109 -7.52676 
-718.927 533.817 -15.4357 
142.758 296.66 73.6323 
143.47 297.585 68.36 
280.534 248.848 30.3083 
281.617 249.871 25.2757 
1464.92 322.758 128.098 
1462.53 321.577 119.439 
1835.02 590.152 234.657 
1831.97 588.969 220.917 
638.068 379.363 28.4922 
639.804 380.923 20.1808 
1448.97 4.46228 -236.523 
1452.28 6.07244 -241.781 
-1840.89 -298.47 400.396 
-1850.05 -303.974 413.09 
-1376.24 -50.6237 354.712 
-1382.85 -54.2783 361.425 
-2250.96 -1026.4 195.443 
-2261.21 -1033.77 221.061 
-2690.74 -33.9327 519.429 
-2699 -38.213 530.2 
789.864 529.619 27.7303 
792.728 532.079 16.2957 
1324.32 879.156 -91.9028 
1332.28 885.13 -111.843 
995.894 461.774 58.0172 
997.12 463.094 47.5132 
-1561.67 160.762 533.299 
-1570.27 156.359 537.813 
-589.198 589.65 6.18524 
-583.144 594.44 -3.07289 
-2845.43 -55.5167 438.031 
-2851.73 -58.6461 449.034 
-2571.22 -319.172 166.106 
-2573.95 -320.739 179.416 
-1102.2 198.999 -668.469 
-1083.07 210.926 -673.855 
2131.15 796.447 368.996 
2126.33 794.529 351.659 
-388.944 429.017 14.0122 
-384.823 432.326 7.24104 
-1509.44 -30.6267 431.919 
-1517.46 -35.0505 439.116 
-2184.22 -160.859 575.752 
-2195.72 -167.407 587.959 
-2415.61 -51.3327 612.728 
-2426.64 -57.3437 623.759 
-2392.19 -707.573 307.896 
-2401.99 -714.056 328.8 
-2986.98 -99.7197 243.553 
-2988.9 -100.312 254.408 
1891.27 217.102 161.691 
1886.49 214.21 154.129 
1034.85 -361.459 -729.097 
1047.06 -355.164 -729.958 
-1989.96 -141.926 501.277 
-1999.85 -147.538 512.16 
1195.01 217.596 0.716248 
1195.08 217.741 -6.20988 
-927.393 487.415 45.5262 
-922.648 491.33 39.2357 
-254.037 402.228 47.1273 
-251.141 404.731 40.7334 
1757.88 0.00726318 -128.861 
1758.15 -0.260332 -134.081 
-1244.31 8.25629 292.939 
-1249.15 5.71993 297.838 
-1911.44 -122.552 537.556 
-1922.13 -128.618 548.133 
1261.75 403.49 106.009 
1260.93 403.424 96.2321 
1117.7 -9.51471 -168.951 
1119.83 -8.55125 -172.68 
184.115 490.333 115.216 
185.525 492.012 106.586 
-1848.15 193.582 579.072 
-1857.08 189.115 584.009 
1492.16 794.474 -66.3028 
1498.5 799.297 -84.9421 
-2653.4 114.506 588.496 
-2662.01 110.284 596.934 
-1986.74 243.769 562.865 
-1994.62 240.043 567.116 
526.556 515.689 62.5453 
528.891 517.876 52.2501 
-8.72591 477.339 107.24 
-6.94574 479.26 99.2718 
-1299.25 57.9142 453.813 
-1307.32 53.5729 459.021 
-244.313 551.093 96.7393 
-241.26 553.958 87.938 
-128.1 538.28 86.1273 
-125.094 541.065 77.2005 
-1454.05 130.991 500.697 
-1462.31 126.702 505.269 
447.172 514.666 62.6082 
449.62 516.938 52.5293 
1593.93 -6.48669 -187.211 
1595.77 -5.80493 -192.298 
-2501.52 166.172 631.848 
-2510.91 161.542 639.255 
1798.17 268.157 141.708 
1794.45 266.011 133.311 
1346.46 161.852 -69.1328 
1347.43 162.389 -75.8853 
2034.12 -126.746 -219.241 
2034.95 -126.988 -223.439 
-3033.59 286.918 94.6712 
-3028.5 291.184 97.5871 
1460.98 214.477 48.0063 
1459.5 213.637 40.7954 
503.29 149.94 -59.8888 
505.249 151.247 -64.2738 
-2882.21 114.988 526.323 
-2888.99 111.895 534.894 
-2779.38 119.022 587.337 
-2787.71 114.996 595.992 
-2671.61 229.224 659.933 
-2680.82 224.852 666.796 
-1767.17 631.188 512.841 
-1770.76 630.65 509.143 
2005.41 454.831 283.065 
1999.74 451.819 271.698 
-63.4709 748.468 117.236 
-59.4116 752.242 104.522 
2025 795.333 355.005 
2020.66 793.724 337.857 
1731.61 -450.183 -483.289 
1736.19 -448.729 -482.607 
-2411.46 -242.563 474.792 
-2420.98 -248.033 488.378 
-1541.16 512.331 523.186 
-1546.39 510.543 521.167 
1179.4 526.475 61.1783 
1180.84 527.998 49.0603 
-789.811 703.822 4.50824 
-782.384 709.68 -6.34706 
-2514.07 11.6873 594.324 
-2523.94 6.49172 604.333 
42.9031 705.193 102.826 
46.7464 708.734 90.5427 
-2246.13 108.866 635.455 
-2256.51 103.482 643.292 
1027.95 860.636 -110.103 
1036.64 867.075 -129.092 
-426.742 690.557 52.6133 
-421.124 695.234 41.4236 
415.792 703.527 70.8463 
419.787 707.064 57.4545 
-528.168 450.03 -32.3677 
-522.558 454.291 -39.4883 
-2400.14 102.143 636.491 
-2410.37 96.8759 644.843 
